ply
format ascii 1.0
element vertex 666
property double x
property double y
property double z
property uchar red
property uchar green
property uchar blue
end_header
-148.241904761904749 -84.424761904761908 698.000000000000000 153 152 184
-148.241904761904749 -83.095238095238102 698.000000000000000 155 152 181
-148.241904761904749 -81.765714285714282 698.000000000000000 156 154 178
-148.666666666666657 -79.333333333333329 700.000000000000000 155 156 174
-148.666666666666657 -78.000000000000000 700.000000000000000 155 158 175
-148.666666666666657 -76.666666666666671 700.000000000000000 163 164 182
-148.666666666666657 -75.333333333333329 700.000000000000000 161 160 178
-146.701904761904757 -114.839047619047619 697.000000000000000 182 172 181
-146.491428571428571 -110.697142857142850 696.000000000000000 113 113 121
-147.333333333333343 -80.666666666666671 700.000000000000000 153 154 182
-147.333333333333343 -74.000000000000000 700.000000000000000 156 155 186
-147.333333333333343 -72.666666666666671 700.000000000000000 156 153 182
-147.333333333333343 -71.333333333333329 700.000000000000000 155 151 178
-147.333333333333343 -70.000000000000000 700.000000000000000 153 149 172
-145.582857142857137 -116.333333333333329 698.000000000000000 198 185 194
-145.582857142857137 -113.674285714285716 698.000000000000000 160 152 176
-145.374285714285719 -109.528571428571425 697.000000000000000 152 154 177
-146.208571428571418 -68.764761904761912 701.000000000000000 148 148 184
-146.208571428571418 -67.429523809523815 701.000000000000000 149 149 185
-146.208571428571418 -66.094285714285718 701.000000000000000 149 149 185
-146.208571428571418 -64.759047619047621 701.000000000000000 149 149 185
-146.625714285714281 -63.604761904761908 703.000000000000000 151 150 184
-146.625714285714281 -62.265714285714289 703.000000000000000 153 150 181
-146.834285714285727 -61.013333333333335 704.000000000000000 153 149 176
-146.834285714285727 -59.672380952380955 704.000000000000000 152 149 176
-146.834285714285727 -58.331428571428575 704.000000000000000 153 150 177
-146.834285714285727 -56.990476190476187 704.000000000000000 154 151 180
-146.834285714285727 -55.649523809523807 704.000000000000000 152 149 178
-146.834285714285727 -54.308571428571426 704.000000000000000 152 148 175
-144.253333333333330 -116.333333333333329 698.000000000000000 198 185 194
-144.253333333333330 -112.344761904761910 698.000000000000000 149 145 170
-144.046666666666653 -110.856190476190477 697.000000000000000 160 157 184
-145.493333333333339 -52.967619047619046 704.000000000000000 149 148 180
-145.493333333333339 -51.626666666666665 704.000000000000000 152 149 176
-145.493333333333339 -50.285714285714285 704.000000000000000 153 151 173
-145.906666666666666 -46.394285714285715 706.000000000000000 157 153 178
-145.906666666666666 -45.049523809523812 706.000000000000000 158 154 179
-145.906666666666666 -43.704761904761902 706.000000000000000 160 156 181
-145.906666666666666 -42.359999999999999 706.000000000000000 159 157 181
-146.113333333333344 -41.073333333333331 707.000000000000000 158 158 182
-146.113333333333344 -39.726666666666667 707.000000000000000 163 163 189
-146.113333333333344 -38.380000000000003 707.000000000000000 160 160 188
-146.113333333333344 -37.033333333333331 707.000000000000000 116 116 140
-146.113333333333344 -35.686666666666667 707.000000000000000 93 92 106
-146.113333333333344 -34.340000000000003 707.000000000000000 48 49 54
-146.113333333333344 -32.993333333333332 707.000000000000000 54 55 59
-146.113333333333344 -28.953333333333333 707.000000000000000 117 114 123
-146.319999999999993 -27.645714285714284 708.000000000000000 108 105 116
-146.319999999999993 -26.297142857142855 708.000000000000000 113 107 119
-142.923809523809524 -117.662857142857149 698.000000000000000 196 182 179
-144.561904761904771 -49.083809523809521 706.000000000000000 150 150 178
-144.561904761904771 -47.739047619047618 706.000000000000000 151 148 179
-144.766666666666680 -31.646666666666668 707.000000000000000 130 133 148
-144.766666666666680 -30.300000000000001 707.000000000000000 133 135 156
-144.971428571428561 -24.948571428571430 708.000000000000000 120 119 150
-144.971428571428561 -23.600000000000001 708.000000000000000 108 109 129
-144.971428571428561 -22.251428571428573 708.000000000000000 59 63 64
-145.380952380952380 -20.961904761904762 710.000000000000000 25 28 19
-145.380952380952380 -19.609523809523811 710.000000000000000 47 47 39
-145.380952380952380 -18.257142857142856 710.000000000000000 55 52 45
-145.380952380952380 -16.904761904761905 710.000000000000000 56 53 46
-144.971428571428561 -15.508571428571429 708.000000000000000 48 45 40
-144.971428571428561 -14.160000000000000 708.000000000000000 80 76 75
-145.380952380952380 -8.790476190476191 710.000000000000000 68 63 57
-141.594285714285718 -117.662857142857149 698.000000000000000 195 183 185
-144.028571428571439 -12.847619047619048 710.000000000000000 137 133 158
-144.028571428571439 -11.495238095238095 710.000000000000000 138 135 154
-144.028571428571439 -10.142857142857142 710.000000000000000 73 71 85
-144.231428571428580 -7.448571428571428 711.000000000000000 105 101 115
-140.264761904761912 -117.662857142857149 698.000000000000000 194 183 187
-142.877142857142843 -7.448571428571428 711.000000000000000 142 140 162
-142.877142857142843 -4.740000000000000 711.000000000000000 125 125 137
-142.877142857142843 -3.385714285714286 711.000000000000000 95 96 101
-142.877142857142843 -2.031428571428572 711.000000000000000 67 66 72
-142.877142857142843 -0.677142857142857 711.000000000000000 81 78 95
-142.877142857142843 0.677142857142857 711.000000000000000 115 112 129
-142.877142857142843 2.031428571428572 711.000000000000000 110 107 118
-143.279047619047617 3.395238095238095 713.000000000000000 72 67 73
-143.279047619047617 4.753333333333333 713.000000000000000 96 91 97
-143.479999999999990 8.840000000000000 714.000000000000000 104 97 115
-143.881904761904764 10.228571428571428 716.000000000000000 84 79 101
-143.881904761904764 11.592380952380953 716.000000000000000 90 86 103
-138.935238095238105 -117.662857142857149 698.000000000000000 196 186 185
-141.522857142857134 -6.094285714285714 711.000000000000000 152 153 171
-141.920952380952372 6.111428571428571 713.000000000000000 120 123 142
-141.920952380952372 7.469523809523809 713.000000000000000 122 126 153
-142.518095238095242 12.956190476190477 716.000000000000000 114 116 139
-142.518095238095242 14.320000000000000 716.000000000000000 121 122 142
-142.518095238095242 15.683809523809524 716.000000000000000 119 118 132
-142.518095238095242 17.047619047619047 716.000000000000000 123 121 135
-142.518095238095242 18.411428571428573 716.000000000000000 135 130 152
-142.518095238095242 19.775238095238095 716.000000000000000 153 148 171
-138.000000000000000 -118.000000000000000 700.000000000000000 194 185 186
-141.154285714285720 21.139047619047620 716.000000000000000 78 75 104
-141.154285714285720 22.502857142857142 716.000000000000000 80 75 97
-141.154285714285720 23.866666666666667 716.000000000000000 81 71 80
-141.154285714285720 25.230476190476189 716.000000000000000 65 53 63
-141.154285714285720 26.594285714285714 716.000000000000000 69 57 77
-141.154285714285720 27.958095238095240 716.000000000000000 96 86 113
-141.154285714285720 29.321904761904761 716.000000000000000 121 114 147
-141.351428571428585 30.728571428571428 717.000000000000000 133 129 162
-141.351428571428585 32.094285714285711 717.000000000000000 130 129 161
-141.351428571428585 33.460000000000001 717.000000000000000 127 127 155
-141.351428571428585 34.825714285714284 717.000000000000000 117 118 139
-141.351428571428585 36.191428571428574 717.000000000000000 82 81 99
-141.351428571428585 37.557142857142857 717.000000000000000 75 72 89
-141.351428571428585 38.922857142857140 717.000000000000000 108 101 117
-136.666666666666657 -118.000000000000000 700.000000000000000 195 186 191
-140.376190476190487 40.400952380952383 719.000000000000000 126 125 157
-139.985714285714295 41.654285714285713 717.000000000000000 82 78 105
-139.985714285714295 43.020000000000003 717.000000000000000 56 52 66
-139.985714285714295 44.385714285714286 717.000000000000000 59 55 56
-140.376190476190487 48.618095238095236 719.000000000000000 58 48 57
-140.376190476190487 49.987619047619049 719.000000000000000 80 69 86
-140.376190476190487 51.357142857142854 719.000000000000000 116 104 124
-134.946666666666658 -117.662857142857149 698.000000000000000 190 182 193
-139.006666666666661 44.509523809523813 719.000000000000000 105 107 119
-139.006666666666661 48.618095238095236 719.000000000000000 86 81 103
-139.006666666666661 52.726666666666667 719.000000000000000 124 117 150
-139.006666666666661 54.096190476190479 719.000000000000000 140 134 162
-139.006666666666661 55.465714285714284 719.000000000000000 142 134 158
-133.617142857142852 -117.662857142857149 698.000000000000000 192 183 202
-137.637142857142862 44.509523809523813 719.000000000000000 127 128 148
-137.637142857142862 48.618095238095236 719.000000000000000 115 113 127
-137.828571428571422 56.914285714285711 720.000000000000000 139 134 156
-137.637142857142862 60.943809523809527 719.000000000000000 141 133 154
-137.637142857142862 62.313333333333333 719.000000000000000 143 135 159
-137.637142857142862 63.682857142857145 719.000000000000000 142 137 160
-137.828571428571422 65.142857142857139 720.000000000000000 144 139 161
-137.828571428571422 66.514285714285720 720.000000000000000 145 140 162
-138.211428571428570 68.074285714285708 722.000000000000000 145 137 161
-138.211428571428570 69.449523809523811 722.000000000000000 147 137 162
-132.287619047619046 -117.662857142857149 698.000000000000000 192 183 202
-135.888571428571424 45.751428571428569 717.000000000000000 152 148 173
-135.888571428571424 47.117142857142859 717.000000000000000 148 145 166
-136.267619047619036 58.204761904761902 719.000000000000000 141 137 162
-136.267619047619036 59.574285714285715 719.000000000000000 140 136 161
-136.836190476190467 70.824761904761900 722.000000000000000 140 136 169
-136.836190476190467 72.200000000000003 722.000000000000000 139 135 168
-137.025714285714287 73.677142857142854 723.000000000000000 139 133 169
-137.025714285714287 75.054285714285712 723.000000000000000 139 133 167
-137.025714285714287 76.431428571428569 723.000000000000000 138 131 165
-137.025714285714287 77.808571428571426 723.000000000000000 136 129 162
-137.025714285714287 79.185714285714283 723.000000000000000 140 133 164
-137.404761904761898 80.785714285714292 725.000000000000000 140 134 160
-137.404761904761898 82.166666666666671 725.000000000000000 139 131 155
-137.025714285714287 83.317142857142855 723.000000000000000 136 128 152
-137.025714285714287 84.694285714285712 723.000000000000000 135 125 150
-137.025714285714287 86.071428571428569 723.000000000000000 135 125 149
-137.025714285714287 87.448571428571427 723.000000000000000 136 126 150
-137.404761904761898 89.071428571428569 725.000000000000000 138 128 153
-137.404761904761898 90.452380952380949 725.000000000000000 140 130 155
-137.404761904761898 91.833333333333329 725.000000000000000 141 128 154
-131.333333333333343 -118.000000000000000 700.000000000000000 190 182 195
-136.023809523809518 93.214285714285708 725.000000000000000 135 130 162
-136.023809523809518 94.595238095238102 725.000000000000000 138 131 162
-136.023809523809518 95.976190476190482 725.000000000000000 139 133 159
-136.023809523809518 97.357142857142861 725.000000000000000 143 134 161
-136.023809523809518 98.738095238095241 725.000000000000000 144 136 160
-130.000000000000000 -118.000000000000000 700.000000000000000 196 188 199
-134.642857142857139 100.119047619047620 725.000000000000000 135 129 163
-134.642857142857139 101.500000000000000 725.000000000000000 135 128 161
-134.642857142857139 102.880952380952380 725.000000000000000 135 128 161
-134.642857142857139 104.261904761904759 725.000000000000000 133 126 160
-134.642857142857139 105.642857142857139 725.000000000000000 129 122 155
-134.642857142857139 107.023809523809518 725.000000000000000 128 122 150
-135.014285714285705 108.703809523809525 727.000000000000000 130 121 148
-135.014285714285705 110.088571428571427 727.000000000000000 129 121 145
-135.014285714285705 111.473333333333329 727.000000000000000 127 119 143
-135.014285714285705 112.858095238095231 727.000000000000000 126 120 146
-135.199999999999989 114.400000000000006 728.000000000000000 132 126 152
-135.199999999999989 115.786666666666662 728.000000000000000 134 127 158
-135.199999999999989 117.173333333333332 728.000000000000000 137 128 159
-135.199999999999989 118.560000000000002 728.000000000000000 139 130 161
-135.199999999999989 119.946666666666673 728.000000000000000 142 133 160
-135.571428571428584 121.666666666666671 730.000000000000000 141 133 156
-135.571428571428584 123.057142857142864 730.000000000000000 132 125 143
-128.666666666666657 -118.000000000000000 700.000000000000000 198 190 203
-134.180952380952391 124.447619047619042 730.000000000000000 130 124 152
-134.180952380952391 125.838095238095235 730.000000000000000 134 128 156
-134.180952380952391 127.228571428571428 730.000000000000000 137 131 159
-134.180952380952391 128.619047619047620 730.000000000000000 138 132 160
-134.180952380952391 130.009523809523813 730.000000000000000 140 131 160
-134.364761904761906 131.580000000000013 731.000000000000000 140 129 161
-134.364761904761906 132.972380952380945 731.000000000000000 140 129 163
-134.364761904761906 134.364761904761906 731.000000000000000 142 131 163
-134.364761904761906 135.757142857142867 731.000000000000000 145 135 160
-127.333333333333329 -118.000000000000000 700.000000000000000 190 182 197
-132.972380952380945 137.149523809523799 731.000000000000000 139 134 166
-132.972380952380945 138.541904761904760 731.000000000000000 137 132 164
-132.972380952380945 139.934285714285721 731.000000000000000 133 128 160
-132.972380952380945 141.326666666666654 731.000000000000000 134 129 161
-132.972380952380945 142.719047619047615 731.000000000000000 136 129 160
-132.972380952380945 144.111428571428576 731.000000000000000 135 126 155
-132.972380952380945 145.503809523809537 731.000000000000000 133 124 151
-132.972380952380945 146.896190476190469 731.000000000000000 133 123 150
-132.972380952380945 148.288571428571430 731.000000000000000 135 125 152
-132.972380952380945 149.680952380952391 731.000000000000000 136 123 151
-132.972380952380945 151.073333333333323 731.000000000000000 140 127 155
-133.336190476190467 152.882857142857148 733.000000000000000 140 127 155
-126.000000000000000 -118.000000000000000 700.000000000000000 193 185 200
-131.939999999999998 154.279047619047617 733.000000000000000 134 127 161
-131.939999999999998 155.675238095238086 733.000000000000000 133 125 162
-132.120000000000005 157.285714285714278 734.000000000000000 132 125 159
-132.120000000000005 158.683809523809515 734.000000000000000 130 123 156
-132.120000000000005 160.081904761904752 734.000000000000000 130 124 152
-132.120000000000005 161.479999999999990 734.000000000000000 132 126 152
-132.479999999999990 163.321904761904761 736.000000000000000 134 129 152
-132.479999999999990 164.723809523809535 736.000000000000000 133 128 150
-132.479999999999990 166.125714285714281 736.000000000000000 134 126 147
-124.666666666666671 -118.000000000000000 700.000000000000000 192 183 200
-131.078095238095244 167.527619047619055 736.000000000000000 126 123 150
-131.078095238095244 168.929523809523801 736.000000000000000 127 124 151
-131.078095238095244 170.331428571428575 736.000000000000000 124 120 145
-131.078095238095244 171.733333333333320 736.000000000000000 125 121 146
-131.078095238095244 173.135238095238094 736.000000000000000 125 121 146
-131.078095238095244 174.537142857142868 736.000000000000000 125 121 146
-131.078095238095244 175.939047619047614 736.000000000000000 127 123 148
-131.078095238095244 177.340952380952388 736.000000000000000 128 124 151
-131.434285714285721 179.228571428571428 738.000000000000000 128 124 151
-131.434285714285721 180.634285714285710 738.000000000000000 127 121 149
-131.434285714285721 182.039999999999992 738.000000000000000 131 122 153
-131.434285714285721 183.445714285714274 738.000000000000000 129 120 149
-131.434285714285721 184.851428571428585 738.000000000000000 129 120 147
-131.434285714285721 186.257142857142867 738.000000000000000 130 120 145
-131.434285714285721 187.662857142857149 738.000000000000000 129 120 141
-123.333333333333329 -116.666666666666671 700.000000000000000 177 167 191
-130.028571428571439 189.068571428571431 738.000000000000000 129 119 146
-130.028571428571439 190.474285714285713 738.000000000000000 130 120 147
-130.204761904761909 192.139999999999986 739.000000000000000 130 120 147
-130.204761904761909 193.547619047619037 739.000000000000000 132 122 147
-130.204761904761909 194.955238095238087 739.000000000000000 134 121 147
-130.204761904761909 196.362857142857138 739.000000000000000 134 122 146
-130.204761904761909 197.770476190476188 739.000000000000000 133 121 145
-130.557142857142850 199.717142857142846 741.000000000000000 133 121 143
-122.000000000000000 -116.666666666666671 700.000000000000000 178 168 193
-129.145714285714291 201.128571428571433 741.000000000000000 125 116 143
-129.319999999999993 202.813333333333333 742.000000000000000 124 116 140
-129.319999999999993 204.226666666666659 742.000000000000000 122 113 140
-129.319999999999993 205.639999999999986 742.000000000000000 121 117 144
-129.319999999999993 207.053333333333342 742.000000000000000 122 117 147
-129.319999999999993 208.466666666666669 742.000000000000000 122 117 147
-129.319999999999993 209.879999999999995 742.000000000000000 124 119 149
-129.319999999999993 211.293333333333322 742.000000000000000 125 120 150
-129.319999999999993 212.706666666666678 742.000000000000000 125 118 149
-129.319999999999993 214.120000000000005 742.000000000000000 123 116 149
-129.319999999999993 215.533333333333331 742.000000000000000 123 116 149
-129.319999999999993 216.946666666666658 742.000000000000000 128 119 150
-129.319999999999993 218.360000000000014 742.000000000000000 128 119 150
-129.668571428571425 220.365714285714290 744.000000000000000 131 120 150
-129.668571428571425 221.782857142857154 744.000000000000000 130 120 147
-129.668571428571425 223.199999999999989 744.000000000000000 130 117 143
-129.668571428571425 224.617142857142852 744.000000000000000 129 117 141
-129.668571428571425 226.034285714285716 744.000000000000000 130 118 140
-120.321904761904761 -115.003809523809522 698.000000000000000 166 157 188
-128.251428571428562 227.451428571428579 744.000000000000000 124 115 144
-128.251428571428562 228.868571428571443 744.000000000000000 131 121 146
-128.251428571428562 230.285714285714278 744.000000000000000 132 122 146
-128.251428571428562 231.702857142857141 744.000000000000000 131 122 143
-128.596190476190486 233.746666666666670 746.000000000000000 131 122 141
-128.596190476190486 235.167619047619041 746.000000000000000 131 122 141
-128.596190476190486 236.588571428571441 746.000000000000000 131 122 141
-118.992380952380955 -115.003809523809522 698.000000000000000 159 152 183
-127.175238095238100 238.009523809523813 746.000000000000000 118 108 142
-127.175238095238100 239.430476190476185 746.000000000000000 122 112 146
-126.834285714285713 240.205714285714294 744.000000000000000 122 112 147
-126.834285714285713 241.622857142857157 744.000000000000000 123 113 148
-126.834285714285713 243.039999999999992 744.000000000000000 122 112 147
-126.834285714285713 244.457142857142856 744.000000000000000 121 109 145
-126.834285714285713 245.874285714285719 744.000000000000000 121 110 144
-126.834285714285713 247.291428571428582 744.000000000000000 123 112 146
-127.175238095238100 249.377142857142843 746.000000000000000 124 113 145
-127.175238095238100 250.798095238095243 746.000000000000000 123 113 138
-117.494285714285709 -116.166666666666671 697.000000000000000 174 164 188
-125.922857142857140 252.557142857142850 747.000000000000000 119 109 134
-125.922857142857140 253.979999999999990 747.000000000000000 120 108 130
-116.166666666666671 -116.166666666666671 697.000000000000000 173 165 188
-124.500000000000000 255.402857142857130 747.000000000000000 123 111 133
-115.003809523809522 -117.662857142857149 698.000000000000000 200 191 208
-123.077142857142860 255.402857142857130 747.000000000000000 125 113 133
-113.674285714285716 -118.992380952380955 698.000000000000000 194 186 197
-121.980000000000004 256.086666666666645 749.000000000000000 124 115 136
-112.344761904761910 -118.992380952380955 698.000000000000000 196 188 203
-120.553333333333327 257.513333333333321 749.000000000000000 117 104 124
-111.015238095238089 -118.992380952380955 698.000000000000000 194 186 201
-119.126666666666665 257.513333333333321 749.000000000000000 114 101 121
-109.685714285714283 -118.992380952380955 698.000000000000000 196 188 203
-117.857142857142861 257.857142857142833 750.000000000000000 111 98 116
-108.356190476190477 -118.992380952380955 698.000000000000000 196 188 203
-116.428571428571431 257.857142857142833 750.000000000000000 109 96 114
-107.026666666666671 -118.992380952380955 698.000000000000000 192 184 197
-115.000000000000000 257.857142857142833 750.000000000000000 107 92 111
-106.000000000000000 -119.333333333333329 700.000000000000000 193 185 198
-113.571428571428569 256.428571428571445 750.000000000000000 127 117 141
-113.874285714285719 258.544761904761913 752.000000000000000 104 89 108
-104.666666666666671 -119.333333333333329 700.000000000000000 194 185 202
-112.142857142857139 255.000000000000000 750.000000000000000 125 117 141
-112.441904761904766 258.544761904761913 752.000000000000000 103 89 102
-103.480952380952374 -119.503809523809522 701.000000000000000 196 187 204
-110.714285714285708 255.000000000000000 750.000000000000000 127 119 143
-102.145714285714291 -119.503809523809522 701.000000000000000 197 188 205
-109.285714285714292 255.000000000000000 750.000000000000000 127 118 145
-100.810476190476194 -119.503809523809522 701.000000000000000 198 189 206
-107.857142857142861 255.000000000000000 750.000000000000000 126 117 144
-108.144761904761907 258.544761904761913 752.000000000000000 91 78 87
-99.475238095238097 -119.503809523809522 701.000000000000000 198 189 206
-106.712380952380954 257.112380952380931 752.000000000000000 128 116 138
-106.712380952380954 258.544761904761913 752.000000000000000 90 74 87
-98.140000000000001 -119.503809523809522 701.000000000000000 194 187 203
-105.280000000000001 258.544761904761913 752.000000000000000 84 70 83
-96.804761904761904 -119.503809523809522 701.000000000000000 194 185 202
-103.847619047619048 258.544761904761913 752.000000000000000 80 64 75
-95.333333333333329 -119.333333333333329 700.000000000000000 195 188 204
-102.142857142857139 257.857142857142833 750.000000000000000 76 60 70
-94.000000000000000 -119.333333333333329 700.000000000000000 192 185 203
-100.714285714285708 257.857142857142833 750.000000000000000 69 53 64
-92.799047619047613 -119.503809523809522 701.000000000000000 191 184 202
-99.550476190476189 258.544761904761913 752.000000000000000 67 51 61
-91.463809523809530 -119.503809523809522 701.000000000000000 189 181 202
-98.118095238095236 258.544761904761913 752.000000000000000 66 51 56
-90.385714285714286 -119.844761904761910 703.000000000000000 191 183 204
-96.685714285714283 258.544761904761913 752.000000000000000 64 49 54
-89.046666666666667 -119.844761904761910 703.000000000000000 193 185 208
-95.253333333333330 258.544761904761913 752.000000000000000 61 44 54
-87.707619047619048 -119.844761904761910 703.000000000000000 189 181 204
-93.820952380952377 258.544761904761913 752.000000000000000 55 39 49
-86.368571428571428 -119.844761904761910 703.000000000000000 183 175 199
-92.388571428571424 258.544761904761913 752.000000000000000 54 37 43
-84.787619047619046 -119.503809523809522 701.000000000000000 183 173 197
-90.956190476190471 257.112380952380931 752.000000000000000 104 92 104
-90.956190476190471 258.544761904761913 752.000000000000000 55 39 39
-83.333333333333329 -119.333333333333329 700.000000000000000 184 174 198
-89.523809523809518 255.680000000000007 752.000000000000000 113 104 123
-82.000000000000000 -119.333333333333329 700.000000000000000 185 175 199
-88.091428571428565 255.680000000000007 752.000000000000000 106 97 118
-80.436190476190475 -118.992380952380955 698.000000000000000 186 176 200
-86.428571428571431 255.000000000000000 750.000000000000000 104 91 117
-79.106666666666669 -118.992380952380955 698.000000000000000 184 174 198
-85.226666666666674 257.112380952380931 752.000000000000000 78 63 68
-78.000000000000000 -119.333333333333329 700.000000000000000 177 168 189
-83.571428571428569 255.000000000000000 750.000000000000000 97 85 97
-76.666666666666671 -119.333333333333329 700.000000000000000 170 161 182
-82.142857142857139 255.000000000000000 750.000000000000000 94 81 90
-75.333333333333329 -119.333333333333329 700.000000000000000 169 160 179
-80.714285714285708 255.000000000000000 750.000000000000000 94 78 89
-74.105714285714285 -119.503809523809522 701.000000000000000 171 162 181
-79.285714285714292 255.000000000000000 750.000000000000000 89 73 84
-72.978095238095236 -121.183809523809529 703.000000000000000 199 189 200
-77.857142857142861 255.000000000000000 750.000000000000000 84 66 78
-71.639047619047616 -121.183809523809529 703.000000000000000 200 190 201
-76.428571428571431 255.000000000000000 750.000000000000000 79 62 72
-70.299999999999997 -121.183809523809529 703.000000000000000 197 189 200
-75.000000000000000 255.000000000000000 750.000000000000000 72 54 66
-68.960952380952378 -121.183809523809529 703.000000000000000 197 189 200
-73.571428571428569 255.000000000000000 750.000000000000000 68 51 61
-67.429523809523815 -120.839047619047619 701.000000000000000 199 191 204
-72.142857142857139 255.000000000000000 750.000000000000000 67 52 59
-66.094285714285718 -120.839047619047619 701.000000000000000 193 185 198
-71.091428571428565 256.360000000000014 754.000000000000000 63 48 53
-64.759047619047621 -120.839047619047619 701.000000000000000 194 186 201
-69.655238095238090 256.360000000000014 754.000000000000000 58 44 44
-63.423809523809524 -120.839047619047619 701.000000000000000 194 185 202
-68.219047619047615 256.360000000000014 754.000000000000000 57 41 42
-62.000000000000000 -120.666666666666671 700.000000000000000 193 185 208
-66.782857142857139 256.360000000000014 754.000000000000000 54 35 41
-60.666666666666664 -120.666666666666671 700.000000000000000 192 187 210
-65.346666666666664 256.360000000000014 754.000000000000000 52 31 40
-59.333333333333336 -120.666666666666671 700.000000000000000 190 184 210
-63.910476190476189 256.360000000000014 754.000000000000000 49 28 37
-58.000000000000000 -120.666666666666671 700.000000000000000 187 182 205
-62.474285714285713 256.360000000000014 754.000000000000000 46 25 34
-56.747619047619047 -120.839047619047619 701.000000000000000 186 178 199
-61.038095238095238 256.360000000000014 754.000000000000000 45 24 33
-55.570476190476192 -121.183809523809529 703.000000000000000 183 179 196
-59.601904761904763 254.923809523809524 754.000000000000000 101 84 102
-59.601904761904763 256.360000000000014 754.000000000000000 46 25 32
-54.231428571428573 -121.183809523809529 703.000000000000000 184 176 199
-58.165714285714287 253.487619047619035 754.000000000000000 114 101 119
-58.165714285714287 256.360000000000014 754.000000000000000 47 27 28
-52.892380952380954 -121.183809523809529 703.000000000000000 186 178 201
-56.729523809523812 253.487619047619035 754.000000000000000 113 100 118
-56.729523809523812 256.360000000000014 754.000000000000000 48 28 27
-51.626666666666665 -122.697142857142850 704.000000000000000 197 188 205
-55.293333333333337 253.487619047619035 754.000000000000000 110 97 114
-55.366666666666667 256.699999999999989 755.000000000000000 45 23 25
-50.214285714285715 -122.522857142857148 703.000000000000000 198 189 206
-53.857142857142854 253.487619047619035 754.000000000000000 104 92 106
-48.875238095238096 -122.522857142857148 703.000000000000000 195 184 200
-52.420952380952379 253.487619047619035 754.000000000000000 100 88 100
-47.536190476190477 -123.861904761904768 703.000000000000000 186 178 193
-50.984761904761903 253.487619047619035 754.000000000000000 98 86 96
-46.197142857142858 -123.861904761904768 703.000000000000000 186 178 193
-49.548571428571428 252.051428571428573 754.000000000000000 130 121 140
-49.548571428571428 253.487619047619035 754.000000000000000 93 79 92
-44.858095238095238 -123.861904761904768 703.000000000000000 190 182 193
-47.984761904761903 249.950476190476195 752.000000000000000 134 124 148
-48.112380952380953 253.487619047619035 754.000000000000000 89 75 88
-48.112380952380953 254.923809523809524 754.000000000000000 62 39 45
-43.519047619047619 -123.861904761904768 703.000000000000000 190 183 191
-46.676190476190477 250.615238095238084 754.000000000000000 134 124 148
-46.676190476190477 253.487619047619035 754.000000000000000 85 72 82
-42.240000000000002 -124.038095238095238 704.000000000000000 190 183 190
-45.240000000000002 250.615238095238084 754.000000000000000 133 124 145
-45.240000000000002 253.487619047619035 754.000000000000000 81 66 73
-40.899047619047622 -124.038095238095238 704.000000000000000 189 182 190
-43.687619047619044 248.518095238095242 752.000000000000000 128 118 142
-39.558095238095241 -124.038095238095238 704.000000000000000 189 181 194
-42.255238095238099 248.518095238095242 752.000000000000000 129 119 144
-38.325714285714284 -125.735238095238088 706.000000000000000 174 168 180
-40.931428571428569 250.615238095238084 754.000000000000000 131 117 140
-36.980952380952381 -125.735238095238088 706.000000000000000 174 168 180
-39.495238095238093 250.615238095238084 754.000000000000000 127 113 138
-39.495238095238093 253.487619047619035 754.000000000000000 68 48 57
-39.495238095238093 254.923809523809524 754.000000000000000 57 34 42
-35.636190476190478 -125.735238095238088 706.000000000000000 175 169 181
-38.059047619047618 250.615238095238084 754.000000000000000 125 112 132
-38.059047619047618 253.487619047619035 754.000000000000000 66 46 55
-38.109523809523807 255.261904761904759 755.000000000000000 56 32 45
-34.388571428571431 -126.091428571428565 708.000000000000000 183 175 188
-36.525714285714287 248.518095238095242 752.000000000000000 128 118 142
-36.622857142857143 253.487619047619035 754.000000000000000 62 42 51
-36.671428571428571 255.261904761904759 755.000000000000000 52 28 41
-33.039999999999999 -126.091428571428565 708.000000000000000 185 177 190
-35.093333333333334 249.950476190476195 752.000000000000000 126 112 137
-35.186666666666667 253.487619047619035 754.000000000000000 56 36 45
-35.233333333333334 255.261904761904759 755.000000000000000 48 26 29
-31.691428571428570 -126.091428571428565 708.000000000000000 189 181 196
-33.660952380952381 249.950476190476195 752.000000000000000 126 112 137
-33.750476190476192 253.487619047619035 754.000000000000000 50 31 37
-30.342857142857142 -126.091428571428565 708.000000000000000 188 179 198
-32.228571428571428 249.950476190476195 752.000000000000000 122 108 134
-32.314285714285717 253.487619047619035 754.000000000000000 46 25 30
-29.076190476190476 -126.447619047619042 710.000000000000000 186 177 196
-30.796190476190475 249.950476190476195 752.000000000000000 120 106 131
-30.878095238095238 253.487619047619035 754.000000000000000 44 24 25
-27.645714285714284 -126.091428571428565 708.000000000000000 186 177 194
-29.441904761904762 250.615238095238084 754.000000000000000 118 105 125
-29.480952380952381 253.823809523809530 755.000000000000000 44 24 23
-26.297142857142855 -126.091428571428565 708.000000000000000 187 181 195
-28.042857142857144 250.947619047619042 755.000000000000000 116 103 123
-28.042857142857144 253.823809523809530 755.000000000000000 46 26 25
-24.948571428571430 -126.091428571428565 708.000000000000000 188 182 192
-26.604761904761904 252.385714285714272 755.000000000000000 97 81 94
-26.604761904761904 253.823809523809530 755.000000000000000 44 24 23
-23.600000000000001 -126.091428571428565 708.000000000000000 187 181 191
-25.166666666666668 253.823809523809530 755.000000000000000 40 20 19
-22.251428571428573 -126.091428571428565 708.000000000000000 189 183 197
-23.728571428571428 253.823809523809530 755.000000000000000 40 21 15
-20.961904761904762 -126.447619047619042 710.000000000000000 192 186 200
-22.290476190476191 252.385714285714272 755.000000000000000 89 73 83
-19.609523809523811 -126.447619047619042 710.000000000000000 197 190 206
-20.852380952380951 252.385714285714272 755.000000000000000 85 67 79
-18.257142857142856 -126.447619047619042 710.000000000000000 194 187 203
-19.414285714285715 252.385714285714272 755.000000000000000 79 59 68
-16.904761904761905 -126.447619047619042 710.000000000000000 194 185 202
-17.976190476190474 249.509523809523813 755.000000000000000 127 115 135
-17.976190476190474 250.947619047619042 755.000000000000000 92 79 88
-15.552380952380952 -126.447619047619042 710.000000000000000 196 189 207
-16.538095238095238 248.071428571428584 755.000000000000000 128 118 143
-14.160000000000000 -126.091428571428565 708.000000000000000 198 189 210
-15.100000000000000 248.071428571428584 755.000000000000000 130 118 142
-12.793333333333333 -125.913333333333327 707.000000000000000 193 185 206
-13.661904761904761 248.071428571428584 755.000000000000000 130 118 142
-11.446666666666667 -125.913333333333327 707.000000000000000 189 181 204
-12.223809523809523 248.071428571428584 755.000000000000000 128 116 138
-10.100000000000000 -125.913333333333327 707.000000000000000 188 180 204
-10.785714285714286 243.757142857142867 755.000000000000000 124 111 139
-10.785714285714286 245.195238095238096 755.000000000000000 125 112 140
-10.785714285714286 246.633333333333326 755.000000000000000 122 112 137
-10.785714285714286 248.071428571428584 755.000000000000000 126 114 134
-8.740952380952381 -125.735238095238088 706.000000000000000 186 177 206
-9.347619047619048 242.319047619047609 755.000000000000000 123 109 132
-7.396190476190476 -125.735238095238088 706.000000000000000 186 179 210
-7.909523809523810 242.319047619047609 755.000000000000000 126 112 135
-6.051428571428572 -125.735238095238088 706.000000000000000 188 181 214
-6.471428571428572 243.757142857142867 755.000000000000000 127 113 139
-6.471428571428572 245.195238095238096 755.000000000000000 127 113 139
-6.471428571428572 246.633333333333326 755.000000000000000 126 114 138
-4.713333333333333 -125.913333333333327 707.000000000000000 187 181 215
-5.046666666666667 248.728571428571428 757.000000000000000 126 112 135
-3.366666666666667 -125.913333333333327 707.000000000000000 186 180 216
-3.604761904761905 247.286666666666662 757.000000000000000 124 112 136
-2.020000000000000 -125.913333333333327 707.000000000000000 185 179 215
-2.162857142857143 247.286666666666662 757.000000000000000 123 114 135
-2.162857142857143 251.612380952380960 757.000000000000000 55 39 40
-0.673333333333333 -125.913333333333327 707.000000000000000 185 179 217
-0.720952380952381 248.728571428571428 757.000000000000000 123 111 131
-0.720952380952381 250.170476190476194 757.000000000000000 109 95 112
-0.720952380952381 251.612380952380960 757.000000000000000 54 34 45
0.673333333333333 -125.913333333333327 707.000000000000000 186 180 216
0.719047619047619 246.633333333333326 755.000000000000000 126 114 136
0.720952380952381 250.170476190476194 757.000000000000000 105 91 106
0.720952380952381 251.612380952380960 757.000000000000000 48 31 39
2.022857142857143 -127.439999999999998 708.000000000000000 162 156 200
2.162857142857143 247.286666666666662 757.000000000000000 128 114 137
2.168571428571429 252.277142857142849 759.000000000000000 53 35 35
3.366666666666667 -127.260000000000005 707.000000000000000 162 157 198
3.604761904761905 247.286666666666662 757.000000000000000 127 112 135
4.706666666666667 -127.079999999999998 706.000000000000000 166 160 206
5.046666666666667 248.728571428571428 757.000000000000000 110 93 111
6.051428571428572 -127.079999999999998 706.000000000000000 170 164 212
6.488571428571428 247.286666666666662 757.000000000000000 125 110 131
7.396190476190476 -127.079999999999998 706.000000000000000 172 166 212
7.909523809523810 245.195238095238096 755.000000000000000 126 111 140
8.716190476190476 -126.719999999999999 704.000000000000000 171 168 213
9.347619047619048 245.195238095238096 755.000000000000000 129 115 141
10.057142857142857 -126.719999999999999 704.000000000000000 173 170 215
10.785714285714286 245.195238095238096 755.000000000000000 128 116 140
11.398095238095237 -126.719999999999999 704.000000000000000 172 170 210
12.223809523809523 245.195238095238096 755.000000000000000 125 113 137
12.739047619047620 -126.719999999999999 704.000000000000000 173 172 206
13.698095238095238 245.844761904761896 757.000000000000000 128 113 144
14.119999999999999 -127.079999999999998 706.000000000000000 179 178 209
15.140000000000001 247.286666666666662 757.000000000000000 125 110 131
15.464761904761906 -127.079999999999998 706.000000000000000 181 178 209
16.581904761904763 245.844761904761896 757.000000000000000 127 113 138
16.809523809523810 -127.079999999999998 706.000000000000000 177 172 204
18.023809523809526 244.402857142857130 757.000000000000000 121 108 134
18.154285714285713 -127.079999999999998 706.000000000000000 179 172 205
19.465714285714284 245.844761904761896 757.000000000000000 128 113 136
19.526666666666667 -127.260000000000005 707.000000000000000 182 173 204
20.907619047619047 244.402857142857130 757.000000000000000 123 109 135
20.873333333333335 -127.260000000000005 707.000000000000000 182 174 198
22.349523809523809 244.402857142857130 757.000000000000000 124 109 132
22.219999999999999 -127.260000000000005 707.000000000000000 183 174 195
23.791428571428572 244.402857142857130 757.000000000000000 123 109 132
23.566666666666666 -127.260000000000005 707.000000000000000 188 176 198
25.233333333333334 245.844761904761896 757.000000000000000 125 110 133
24.913333333333334 -127.260000000000005 707.000000000000000 191 179 201
26.675238095238097 245.844761904761896 757.000000000000000 124 108 134
26.260000000000002 -127.260000000000005 707.000000000000000 192 183 204
28.117142857142856 245.844761904761896 757.000000000000000 124 109 132
27.606666666666666 -127.260000000000005 707.000000000000000 193 184 205
29.559047619047618 241.519047619047626 757.000000000000000 122 111 128
29.559047619047618 242.960952380952392 757.000000000000000 122 111 128
29.559047619047618 244.402857142857130 757.000000000000000 125 111 134
28.953333333333333 -127.260000000000005 707.000000000000000 192 183 204
31.000952380952381 240.077142857142860 757.000000000000000 122 110 132
31.000952380952381 244.402857142857130 757.000000000000000 123 110 130
30.300000000000001 -127.260000000000005 707.000000000000000 190 181 202
32.442857142857143 240.077142857142860 757.000000000000000 122 110 130
32.442857142857143 244.402857142857130 757.000000000000000 122 109 129
31.646666666666668 -127.260000000000005 707.000000000000000 193 181 205
33.884761904761902 241.519047619047626 757.000000000000000 121 110 127
32.946666666666665 -127.079999999999998 706.000000000000000 193 181 205
35.420000000000002 243.602857142857147 759.000000000000000 122 110 130
34.291428571428568 -127.079999999999998 706.000000000000000 187 178 199
36.865714285714283 243.602857142857147 759.000000000000000 124 110 133
35.686666666666667 -127.260000000000005 707.000000000000000 185 177 200
38.311428571428571 245.048571428571421 759.000000000000000 125 112 132
37.033333333333331 -125.913333333333327 707.000000000000000 150 149 181
39.757142857142860 243.602857142857147 759.000000000000000 124 110 135
38.380000000000003 -125.913333333333327 707.000000000000000 150 149 181
41.202857142857141 243.602857142857147 759.000000000000000 125 113 137
39.782857142857139 -127.439999999999998 708.000000000000000 181 178 199
42.648571428571429 243.602857142857147 759.000000000000000 127 113 138
41.131428571428572 -128.788571428571430 708.000000000000000 190 180 188
44.094285714285711 243.602857142857147 759.000000000000000 126 114 138
42.479999999999997 -128.788571428571430 708.000000000000000 186 175 192
45.539999999999999 243.602857142857147 759.000000000000000 126 114 138
43.395238095238092 -127.515238095238089 701.000000000000000 187 174 194
46.985714285714288 243.602857142857147 759.000000000000000 126 114 138
44.730476190476189 -127.515238095238089 701.000000000000000 185 172 189
48.431428571428569 243.602857142857147 759.000000000000000 126 112 135
46.525714285714287 -128.788571428571430 708.000000000000000 184 172 192
49.877142857142857 242.157142857142844 759.000000000000000 122 108 133
47.806666666666665 -129.953333333333347 707.000000000000000 163 149 185
51.322857142857146 242.157142857142844 759.000000000000000 122 108 131
49.153333333333336 -129.953333333333347 707.000000000000000 156 145 188
52.907619047619050 242.795238095238091 761.000000000000000 122 108 133
50.500000000000000 -129.953333333333347 707.000000000000000 154 147 181
54.357142857142854 244.244761904761901 761.000000000000000 126 108 134
51.846666666666664 -129.953333333333347 707.000000000000000 171 168 197
55.806666666666665 244.244761904761901 761.000000000000000 124 106 132
53.494285714285716 -130.688571428571436 711.000000000000000 180 177 204
57.256190476190476 244.244761904761901 761.000000000000000 124 106 130
55.002857142857145 -131.056190476190466 713.000000000000000 191 188 215
58.782857142857139 243.114285714285728 762.000000000000000 123 107 133
55.965714285714284 -130.137142857142862 708.000000000000000 190 187 216
60.234285714285711 243.114285714285728 762.000000000000000 125 110 133
57.314285714285717 -130.137142857142862 708.000000000000000 189 184 216
61.685714285714283 243.114285714285728 762.000000000000000 124 106 130
58.662857142857142 -128.788571428571430 708.000000000000000 162 157 189
63.137142857142855 243.114285714285728 762.000000000000000 124 106 132
60.011428571428574 -128.788571428571430 708.000000000000000 157 153 180
64.588571428571427 241.662857142857149 762.000000000000000 120 105 128
64.588571428571427 243.114285714285728 762.000000000000000 125 107 133
61.359999999999999 -127.439999999999998 708.000000000000000 151 149 171
66.040000000000006 240.211428571428570 762.000000000000000 118 103 124
66.040000000000006 243.114285714285728 762.000000000000000 125 107 131
62.708571428571432 -127.439999999999998 708.000000000000000 148 146 168
67.491428571428571 240.211428571428570 762.000000000000000 119 104 125
64.057142857142864 -128.788571428571430 708.000000000000000 158 155 182
69.123809523809527 242.297142857142859 764.000000000000000 125 110 133
69.123809523809527 243.752380952380946 764.000000000000000 126 107 135
69.123809523809527 245.207619047619062 764.000000000000000 112 92 117
65.405714285714282 -128.788571428571430 708.000000000000000 159 156 185
70.579047619047614 245.207619047619062 764.000000000000000 105 87 109
66.754285714285714 -128.788571428571430 708.000000000000000 161 159 183
72.034285714285716 243.752380952380946 764.000000000000000 123 108 129
68.391428571428577 -129.334285714285727 711.000000000000000 157 153 178
73.489523809523803 243.752380952380946 764.000000000000000 121 106 127
69.745714285714286 -130.688571428571436 711.000000000000000 178 169 198
74.944761904761904 243.752380952380946 764.000000000000000 120 104 130
74.944761904761904 245.207619047619062 764.000000000000000 96 79 97
71.099999999999994 -130.688571428571436 711.000000000000000 180 170 194
76.200000000000003 241.662857142857149 762.000000000000000 121 105 131
76.400000000000006 245.207619047619062 764.000000000000000 92 74 88
72.658095238095243 -131.056190476190466 713.000000000000000 180 168 182
77.651428571428568 240.211428571428570 762.000000000000000 119 104 127
74.016190476190474 -131.056190476190466 713.000000000000000 183 171 181
79.102857142857147 240.211428571428570 762.000000000000000 118 103 126
75.374285714285719 -131.056190476190466 713.000000000000000 183 172 186
80.765714285714282 242.297142857142859 764.000000000000000 122 104 130
76.732380952380950 -131.056190476190466 713.000000000000000 181 172 189
82.220952380952383 242.297142857142859 764.000000000000000 121 102 130
78.200000000000003 -132.599999999999994 714.000000000000000 177 170 177
83.457142857142856 240.211428571428570 762.000000000000000 119 101 127
79.448571428571427 -132.414285714285711 713.000000000000000 176 169 177
84.908571428571435 240.211428571428570 762.000000000000000 117 102 125
80.806666666666672 -132.414285714285711 713.000000000000000 178 168 177
86.586666666666673 242.297142857142859 764.000000000000000 122 104 126
82.164761904761903 -132.414285714285711 713.000000000000000 178 171 179
88.041904761904760 242.297142857142859 764.000000000000000 119 104 127
88.272380952380956 245.849523809523816 766.000000000000000 69 49 58
83.522857142857148 -132.414285714285711 713.000000000000000 179 171 186
89.262857142857143 240.211428571428570 762.000000000000000 116 101 124
89.497142857142862 245.207619047619062 764.000000000000000 67 47 56
84.880952380952380 -132.414285714285711 713.000000000000000 177 171 185
90.714285714285708 240.211428571428570 762.000000000000000 117 102 123
90.952380952380949 245.207619047619062 764.000000000000000 67 47 58
86.239047619047625 -132.414285714285711 713.000000000000000 175 172 183
92.165714285714287 240.211428571428570 762.000000000000000 117 102 123
92.649523809523814 245.849523809523816 766.000000000000000 66 46 58
87.597142857142856 -132.414285714285711 713.000000000000000 176 173 182
93.862857142857138 242.297142857142859 764.000000000000000 115 100 121
93.862857142857138 243.752380952380946 764.000000000000000 106 89 108
94.108571428571423 245.849523809523816 766.000000000000000 62 44 56
88.580952380952382 -131.857142857142861 710.000000000000000 180 175 182
95.567619047619047 245.849523809523816 766.000000000000000 59 42 52
89.680000000000007 -131.485714285714295 708.000000000000000 178 171 178
97.026666666666671 245.849523809523816 766.000000000000000 55 38 46
91.028571428571425 -131.485714285714295 708.000000000000000 177 170 178
98.485714285714280 245.849523809523816 766.000000000000000 56 37 43
92.377142857142857 -131.485714285714295 708.000000000000000 178 170 181
99.944761904761904 245.849523809523816 766.000000000000000 57 38 42
93.990476190476187 -131.857142857142861 710.000000000000000 181 170 186
101.403809523809528 247.308571428571440 766.000000000000000 53 31 33
95.477142857142852 -132.042857142857144 711.000000000000000 177 169 184
102.862857142857138 244.390476190476193 766.000000000000000 90 74 84
102.997142857142862 247.631428571428557 767.000000000000000 52 30 32
97.103809523809531 -132.414285714285711 713.000000000000000 175 167 180
104.321904761904761 241.472380952380945 766.000000000000000 117 104 124
104.321904761904761 242.931428571428569 766.000000000000000 104 87 103
104.321904761904761 245.849523809523816 766.000000000000000 46 26 27
98.599999999999994 -132.599999999999994 714.000000000000000 174 168 180
105.780952380952385 240.013333333333321 766.000000000000000 115 102 122
105.780952380952385 245.849523809523816 766.000000000000000 50 30 29
99.959999999999994 -132.599999999999994 714.000000000000000 173 167 179
107.239999999999995 241.472380952380945 766.000000000000000 114 100 117
101.319999999999993 -132.599999999999994 714.000000000000000 174 168 180
101.178095238095239 -131.056190476190466 713.000000000000000 161 160 178
108.699047619047619 240.013333333333321 766.000000000000000 114 100 123
102.680000000000007 -132.599999999999994 714.000000000000000 171 165 179
102.536190476190470 -129.698095238095249 713.000000000000000 137 138 159
110.158095238095243 240.013333333333321 766.000000000000000 113 99 124
